2.34578e-05 -5.7959e-06 -0.000134094 9.06734e-11
0.126723 -0.114804 0.0229765 -0.472816
0.381388 -0.402413 -0.0223866 -0.813436
0.429266 -0.493843 -0.134991 -1.04424
0.955662 -1.3619 -0.0699343 -0.976957
1.38346 -1.98657 -0.0693018 -0.776041
2.11025 -2.73324 -0.0637819 -0.839241
2.13861 -2.81033 -0.0749982 -1.3341
2.09578 -2.79615 -0.109576 -1.55627
2.04169 -2.75958 -0.102959 -1.81856
1.97822 -2.71782 -0.0600336 -2.08029
1.21628 -3.40458 -0.119289 -2.17098
0.633545 -4.30065 -0.0537667 -2.16135
0.0839849 -5.14682 -0.0747174 -2.1294
-0.595696 -5.87327 -0.0672797 -2.36659
-1.48092 -6.60998 -0.0557919 -2.34455
-2.26372 -7.34198 -0.0143904 -2.17296
-2.81789 -8.27601 -0.0173957 -2.06572
-3.19117 -8.61424 -0.00765676 -2.2684
-3.57539 -9.07228 -0.0173052 -2.06743
-4.19745 -9.94379 -0.0344446 -2.06876
-4.53631 -10.2184 -0.00990868 -2.43272
-4.63179 -10.2298 -0.000566377 -2.65227
-5.25076 -10.3325 -0.0237052 -2.9736
-5.3361 -10.308 -0.00201685 3.08642
-5.39298 -10.2345 0.0105784 2.85886
-5.49618 -10.1696 0.0280498 2.48633
-5.63784 -9.97602 0.00959713 2.26779
-6.12374 -9.02004 0.00587592 2.26265
-6.70317 -8.15721 0.0113655 2.29329
-7.32807 -7.59911 0.0604594 2.49875
-7.83263 -7.11793 0.0706497 2.22674
-8.34403 -6.242 0.0408102 2.15047
-8.65643 -5.61933 0.0906415 2.52988
-8.93093 -5.61448 0.0684498 2.8651
-9.58573 -5.48536 0.0567109 2.96826
-10.5406 -5.19388 0.12029 2.92778
-11.0129 -5.18364 0.0957381 -3.03119
-11.9762 -4.96771 0.166754 2.95959
-12.1318 -4.92011 0.202244 2.70305
-13.0444 -4.39625 -0.0253136 2.49583
-13.6174 -3.72581 0.0680169 2.28311
-14.1768 -2.86979 0.263747 2.21946
-14.6584 -1.87749 0.182257 2.23663
-14.9187 -1.23015 0.288835 1.86533
-14.8522 -1.14831 0.315582 1.56578
-14.7589 -1.03513 0.275924 1.13422
-14.6568 -0.910449 0.200329 0.869693
-13.7993 -0.230647 0.175298 0.823864
-13.3011 0.101532 0.199331 0.425743
-13.2973 -0.0241178 0.168206 0.137705
-13.316 -0.0570156 0.138988 -0.232548
-13.333 -0.0582226 0.173992 -0.531228
-12.7408 -0.921471 0.183567 -0.607383
-12.0797 -1.55114 0.161877 -0.355212
-10.9668 -1.96807 0.0839997 -0.316311
-9.93377 -2.31937 0.0624336 -0.283262
-8.96668 -2.75249 0.0845464 -0.451024
-8.87617 -2.92588 0.0617174 -0.793648
-8.84652 -3.03132 0.0565007 -1.05062
-8.62515 -3.37675 0.0312718 -1.11173
-8.48289 -4.09376 0.0337583 -1.40922
-8.29388 -5.05413 0.0231092 -1.27921
-8.13349 -5.17855 0.035693 -0.927498
-8.06442 -5.28815 0.0083357 -0.694337
-7.96182 -5.25108 0.0510804 -0.485042
-7.86551 -5.27677 0.0264099 -0.156394
-7.74618 -5.21576 0.0545724 0.163179
-7.60695 -5.17117 0.0625312 0.368943
-7.47156 -5.10949 -0.00742155 0.570143
-6.62341 -4.52024 0.00275106 0.788049
-6.24854 -4.03767 0.00562178 1.01452
-5.85823 -3.53287 -0.00319288 0.777442
-5.04749 -2.70719 0.0229656 0.748807
-4.19644 -2.06787 -0.0567574 0.723595
-3.65363 -1.71647 -0.0569354 0.474907
-2.79133 -1.45641 -0.0464941 0.261105
-2.53743 -1.46466 -0.0358202 0.00651555
-1.52676 -1.43407 -0.037448 -0.0200701
-0.497316 -1.57454 -0.0174627 -0.323364
-0.400677 -1.67467 -0.0170476 -0.558401
0.0428597 -2.10986 -0.0543696 -0.874603
0.100041 -2.3184 -0.0751265 -1.17162
0.0481056 -2.42566 -0.0664749 -1.46298
0.0865518 -2.98092 -0.0886828 -1.56091
0.0797847 -3.15684 -0.082205 -1.76359
-0.0802282 -3.87359 -0.0796662 -2.09438
-0.274301 -3.95159 -0.0614781 -2.37191
-0.382445 -4.03125 -0.0647513 -2.6389
-1.15098 -4.36719 -0.04898 -2.90142
-2.24398 -4.55888 -0.054623 -2.98394
-2.58522 -4.51003 -0.038246 3.04541
-3.73239 -4.28048 -0.00513678 3.00067
-4.29089 -4.05023 -0.00718014 2.61658
-4.93439 -3.56074 0.00506506 2.30154
-5.01118 -3.36613 -0.0152601 1.92408
-5.02615 -3.30895 -0.0148172 1.69647
-5.02385 -3.20274 0.00737764 1.48269
-4.91979 -3.09462 0.0295957 1.20434
-4.4363 -2.07197 -0.00361824 1.08001
-4.18687 -1.84383 0.0192893 0.689349
-4.00824 -1.76523 -0.0421243 0.4569
-3.89159 -1.76135 0.00721023 0.237659
-2.90708 -1.49168 -0.0314354 0.241493
-1.89717 -1.22146 -0.0290086 0.385454
-1.74985 -1.03497 0.0270687 0.728269
-1.74041 -0.990266 -0.0242616 0.979716
-1.7359 -0.821676 -0.00187991 1.25323
-1.52825 0.216593 -0.0113616 1.37723
-1.31783 0.766511 0.040616 0.969929
-1.12695 0.846114 0.0334166 0.596434
-1.05237 0.785502 0.0220178 0.321613
-0.914721 0.775919 -0.0118505 0.0232856
-0.823657 0.626295 -0.0733077 -0.396032
-0.366841 0.430167 -0.0491289 -0.637925
-0.26231 0.278097 -0.0274947 -0.930813
0.199527 -0.71798 -0.115996 -1.08171
0.320888 -1.13433 -0.0229201 -1.28341
0.370118 -1.84762 -0.0599487 -1.64052
0.39326 -2.32535 -0.0738221 -1.42712
0.475091 -2.31377 -0.0394331 -1.01002
1.14312 -3.09983 -0.100459 -0.899094
1.18092 -3.19448 -0.0692434 -1.12408
1.17807 -3.30282 -0.0742633 -1.37298
1.0358 -3.29881 -0.0720676 -1.82311
1.02213 -3.32296 -0.0855459 -2.0474
0.571319 -4.2553 -0.0835719 -2.06188
0.252643 -4.7189 -0.076853 -2.34776
0.0594247 -4.75112 -0.068096 -2.73179
-0.0510274 -4.75671 -0.0438063 -3.0229
-1.17376 -4.70761 -0.0532183 3.10561
-2.1439 -4.57532 -0.041772 2.88407
-2.37815 -4.48447 -0.0372877 2.66785
-3.34948 -4.08905 -0.0202624 2.76587
-3.54231 -4.10881 -0.0222285 2.98093
-3.73257 -4.12656 -0.012017 -3.01284
-4.4309 -4.3083 -0.00190477 -2.70589
-4.54354 -4.34566 -0.0266382 -2.47396
-4.54655 -4.4697 0.00465703 -2.22046
-4.61007 -4.51332 -0.0228222 -2.00047
-4.59832 -4.61708 -0.0187455 -1.77469
-4.54537 -4.76235 -0.0271219 -1.4004
-4.2601 -5.88499 -0.0231465 -1.2873
-4.14865 -6.54044 -0.0148135 -1.62249
-4.27986 -6.74179 -0.00465261 -1.92461
-4.54666 -7.7093 -0.015965 -1.93836
-4.97833 -8.41172 -0.00486963 -2.2555
-5.05883 -8.47161 -0.0276608 -2.49378
-5.18567 -8.47502 -0.0212545 -2.82982
-5.49603 -8.53794 -0.0437418 -2.98125
-6.52984 -8.69116 -0.013833 -2.92658
-7.21994 -8.73179 0.00707638 3.08809
-7.31779 -8.69357 0.026424 2.8603
-7.39153 -8.56179 0.028094 2.62164
-7.75225 -8.32392 0.0210053 2.40689
-8.50752 -7.59923 0.0118847 2.17424
-8.50915 -7.38296 0.023088 1.90972
-8.48888 -7.29386 0.0338296 1.67158
-8.44133 -7.22187 0.0227586 1.4044
-8.31765 -7.10341 0.0526978 1.11411
-7.8357 -6.20389 0.0160695 1.18744
-7.87098 -5.9983 0.0279762 1.53496
-7.89405 -5.89295 0.0150207 1.85166
-8.01945 -5.74969 0.0151354 2.15156
-8.61499 -4.83319 0.0360104 2.24024
-9.25049 -3.87328 0.0454859 2.24865
-9.86685 -3.00529 0.0975452 2.2149
-10.4698 -2.184 0.0429882 2.22415
-11.1482 -1.28437 0.104271 2.23979
-11.816 -0.328554 0.1452 2.24946
-12.4785 0.54481 0.206417 2.29066
-12.7108 0.753614 0.193526 2.52652
-12.9154 0.766195 0.180814 2.89123
-12.9891 0.743778 0.179636 3.12363
-13.0956 0.612348 0.167211 -2.82766
-13.1181 0.537684 0.183739 -2.38747
-13.1806 0.456609 0.18643 -2.17883
-13.7406 -0.468519 0.162014 -2.10573
-14.2502 -1.34854 0.168876 -2.12553
-14.5313 -2.04131 0.164765 -1.83242
-14.4814 -2.2069 0.196034 -1.55022
-14.432 -2.28193 0.150692 -1.21808
-13.9491 -3.3227 0.13411 -1.11299
-13.7878 -3.46959 0.120426 -0.750845
-13.1125 -3.88528 0.0600877 -0.390402
-12.5965 -4.1565 0.0702848 -0.707666
-12.5403 -4.31256 0.0505926 -1.1573
-12.5563 -4.5085 0.0506989 -1.55435
-12.4354 -5.07511 -0.0251384 -1.29464
-12.3594 -5.15681 0.000567225 -1.02127
-11.8029 -6.05308 0.0171504 -0.886495
-11.6614 -6.18578 0.0878823 -0.581781
-11.4881 -6.2343 0.114418 -0.135481
-11.3885 -6.20239 0.155254 0.122088
-11.2209 -6.18665 0.162595 0.38208
-11.1857 -6.14503 0.219297 0.651475
-11.1718 -6.12531 0.253465 0.905616
-11.1665 -5.93954 0.285102 1.25207
-11.2536 -5.80786 0.305188 1.69679
-11.2518 -5.71739 0.332189 1.99001
-11.4126 -5.57413 0.336245 2.38622
-11.5316 -5.52436 0.354993 2.61582
-11.7007 -5.43375 0.39864 2.90096
-11.7959 -5.50973 0.300461 -3.10551
-11.9881 -5.54277 0.26865 -2.76525
-12.3287 -5.51514 0.112278 -3.09833
-12.5256 -5.38233 0.0643999 2.81723
-12.595 -5.3187 0.0120613 2.50497
-12.626 -5.26744 0.0806413 2.28156
-12.6665 -5.08369 0.0954775 1.90639
-12.6628 -5.02088 0.128802 1.67587
-12.6207 -4.93154 0.0823664 1.47432
-12.5468 -4.49851 0.0932956 1.26832
-12.3429 -3.5177 0.0877809 1.34201
-12.1274 -2.47164 0.114189 1.37894
-11.9323 -1.30805 0.120274 1.41068
-11.7822 -0.301514 0.115853 1.43935
-11.6596 0.778494 0.16164 1.63265
-11.707 0.855384 0.172728 1.86134
-11.8505 0.985636 0.184131 2.18553
-11.9935 1.04287 0.194415 2.62003
-12.1417 1.07147 0.216727 2.93233
-12.2424 1.04498 0.165093 -3.1213
-12.3531 0.959692 0.161961 -2.78757
-12.4414 0.862046 0.148987 -2.34114
-12.4769 0.750404 0.159685 -2.13608
-12.4626 0.649355 0.128064 -1.90413
-12.4043 0.504257 0.129388 -1.63484
-12.3908 0.457711 0.101581 -1.39157
-12.3243 0.326475 0.118216 -1.08547
-11.9203 -0.60013 0.119573 -1.07479
-11.3942 -1.64016 0.100276 -1.08662
-10.901 -2.52856 0.0749822 -1.02545
-10.388 -3.50789 0.0715624 -1.01745
-9.89034 -4.39088 0.0904181 -0.793964
-9.78876 -4.41691 0.06804 -0.49953
-8.84685 -4.84341 0.0252038 -0.439577
-7.97336 -5.13713 0.0395206 -0.194417
-7.81647 -5.09857 0.033382 0.0731307
-7.12149 -4.95956 0.0128658 0.463337
-6.18549 -4.52604 0.000508509 0.500135
-5.46983 -4.32071 0.010841 0.262851
-5.3627 -4.32553 -0.000501131 0.0266593
-4.32623 -4.31304 -0.019815 0.000795009
-3.19062 -4.32994 -0.0284209 0.00903686
-2.12659 -4.36356 -0.0512529 0.0252019
-1.17 -4.28372 -0.0434319 0.284464
-0.477561 -3.97952 -0.0709074 0.493263
-0.354807 -3.82553 -0.0617799 0.699827
0.137594 -3.31315 -0.0885449 0.948323
0.148417 -3.12425 -0.0812313 1.25635
0.215585 -2.28611 -0.0935298 1.49582
0.157628 -2.13121 -0.0912335 1.71358
0.000485622 -1.96632 -0.0819894 2.0683
-0.0938451 -1.927 -0.0762769 2.43694
-0.224114 -1.90359 -0.0740956 2.66292
-0.312901 -1.92722 -0.0895429 3.0653
-0.501889 -1.98194 -0.0827706 -2.90987
-0.787554 -2.10631 -0.0797765 -2.69672
0.123474 -1.7602 -0.0977679 -2.44231
0.147879 -1.79099 -0.0768532 -2.20449
0.198825 -1.81449 -0.0880011 -1.82439
0.148629 -1.78697 -0.0936805 -2.1498
0.113224 -1.73769 -0.0709871 -2.43717
0.117759 -1.67224 -0.0855968 -2.65391
0.108035 -1.63042 -0.0733448 -3.02011
0.0874742 -1.56557 -0.0837994 2.93856
0.0871677 -1.5544 -0.0852483 2.70989
-0.85089 -1.15074 -0.0821727 2.72587
-1.09151 -1.08429 -0.0801056 2.98054
-1.76982 -1.07039 -0.0480097 -3.02113
-2.3376 -1.18144 -0.0423109 -2.71271
-3.28956 -1.54671 -0.0495112 -2.92238
-3.49482 -1.48846 -0.0422849 2.94178
-3.59154 -1.41063 -0.0552271 2.68716
-4.51436 -0.987978 -0.0481813 2.71598
-5.35464 -0.569977 -0.0741496 2.50019
-5.44699 -0.38166 -0.0172696 2.22523
-5.47425 -0.269967 -0.0246384 1.84827
-5.4601 -0.108232 -0.0205358 1.60697
-5.38235 0.0411647 -0.051696 1.24839
-5.10333 0.750481 -0.0622385 0.958834
-4.96789 0.79056 -0.0666292 0.691365
-4.03332 1.49196 -0.117672 0.698611
-4.10877 1.51071 -0.10054 0.974298
-4.16316 1.53072 -0.136828 1.29028
-4.06444 2.09164 -0.461944 1.39792
-4.16571 1.77903 -0.353679 1.39818
-4.02836 2.06265 0.0292356 1.34295
